# .PCD v0.7 - Point Cloud Data file format
VERSION 0.7
FIELDS x y z intensity
SIZE 4 4 4 4
TYPE F F F F
COUNT 1 1 1 1
WIDTH 1242
HEIGHT 1
VIEWPOINT 0 0 0 1 0 0 0
POINTS 1242
DATA ascii
3.7440324 2.1310074 0.42068455 48.185184
4.0416288 2.1403165 0.42175412 67.428574
4.3635302 2.1469405 0.44809103 75.3125
4.6008725 2.1580882 0.46238086 76.400002
-1.0193443 2.476898 0.47542432 103.27273
-0.76319391 2.4491725 0.4504666 77.166664
-0.46256173 2.4341183 0.46286711 70.307693
-0.13888915 2.4518933 0.46207976 92.846153
0.15723941 2.4598949 0.43165424 94.511627
0.46884969 2.4598651 0.43977246 79.48214
0.75365484 2.4680696 0.44378987 69.123077
1.0688938 2.4729269 0.44027168 54.507248
1.3602395 2.4860663 0.43321151 44.386665
1.648348 2.4900544 0.44839001 38.652172
1.9491035 2.4936535 0.43651384 34.855423
2.2430928 2.5051017 0.42587462 42
2.5197797 2.4932139 0.42817211 43.636364
1.5474682 -1.9541291 0.73001486 0.27272728
-1.808283 -1.5399764 0.87081152 70
-1.4383793 -1.5120472 0.79347467 52.5
-1.0445466 -1.5508403 0.8256644 31.25
-0.69385594 -1.5478561 0.76678085 36.722221
-0.41673362 -1.5824617 0.71574497 27.060606
-0.13581397 -1.5740902 0.73478359 21.793104
0.14213483 -1.5513868 0.7223953 19.469696
0.44377199 -1.5438819 0.74512112 18.90625
0.73508549 -1.551524 0.74490309 12.803572
0.94158649 -1.5423539 0.73040128 9.3513517
1.4930195 -1.6653147 0.75187916 10.333333
1.5424149 -1.6437769 0.72907466 9.1052628
2.0411918 -1.68126 0.7351132 3.3571429
2.210891 -1.6159325 0.7113716 4.3125
2.5491054 -1.6666015 0.70452762 2.4927535
2.8561606 -1.664691 0.69764298 2.4918032
3.1445503 -1.5957381 0.71804446 4.03125
3.4489861 -1.5515823 0.69238698 5.5999999
3.7724292 -1.5497167 0.75962818 9.3999996
4.0646496 -1.5653586 0.6919477 7.2222223
4.3940716 -1.5661764 0.68260396 4.5625
4.69626 -1.593228 0.75673223 4.0769229
4.8533955 -1.5687913 0.76849264 78
-2.1550968 -1.3527837 0.64100093 106.33334
-1.3897264 -1.3735361 0.61623132 95
-1.0580137 -1.4718 0.79693294 83.5
-0.7400803 -1.481647 0.75604898 32.75
-0.10967392 -1.4647065 0.74069959 8.833333
0.14912318 -1.4751525 0.74301493 11.545455
0.41603863 -1.4655368 0.73308432 15.631579
0.79068708 -1.4786918 0.76302856 8.9310341
1.091128 -1.4287609 0.72473729 6.5841584
1.3427274 -1.4094137 0.71316725 7.5
1.5576612 -1.3875176 0.70685214 6.4925375
3.5215983 -1.4878277 0.6582616 18.222221
4.7968893 -1.2060951 0.83849376 55.5
4.8470707 -1.3581313 0.75639242 125.84375
-2.1781597 -1.0104501 0.61848837 72.666664
-1.4039394 -1.0281229 0.71432108 42
-0.68947446 -1.0280498 0.72132576 39.5
-0.42632467 -1.0234573 0.62594724 74.5
4.7982464 -1.17203 0.83762288 61.5
4.8387036 -1.0349095 0.76296651 115.14286
-2.1844847 -0.75334644 0.649104 94.25
-1.4250649 -0.7029416 0.811185 3.3333333
-0.92147833 -0.60690588 0.81105435 5
-0.77165675 -0.64072037 0.7481944 3.2105262
-0.4308207 -0.66732496 0.72632653 17.299999
-0.28947893 -0.73541385 0.61273009 5.6666665
4.8307314 -0.74473876 0.75878286 126.625
-2.2021246 -0.43413255 0.69746065 134.66667
-1.4250541 -0.49884811 0.78332847 4.4285712
-0.91572869 -0.5939517 0.85809833 1
-0.74338293 -0.54421049 0.77839684 7.1666665
-0.44885406 -0.52901703 0.70026112 11.885715
4.7973275 -0.37959656 0.72652483 118
4.8198214 -0.46499807 0.74005687 124.21875
-2.210062 -0.18475002 0.75615978 132.83333
4.7821889 -0.16792578 0.7313385 97
4.8360491 -0.12795165 0.73190856 126.93333
-2.225246 0.16382311 0.74142015 95.5
-1.2132678 0.17829019 0.62738562 8
-1.1846263 0.17146882 0.63871121 5
4.787447 0.13973536 0.74271786 116.45946
4.878572 0.14574441 0.70814788 130.8
-2.2345088 0.40356854 0.69224566 150
-1.2176088 0.34572291 0.61668074 8
-1.1665941 0.37521043 0.62085515 44.25
4.777411 0.44536892 0.76376468 115.275
4.8924322 0.42920837 0.82877946 147.5
-2.2541156 0.81635773 0.89775842 128
-1.0385494 0.83328426 0.65012801 1
4.7722883 0.73495549 0.75713253 109.66666
4.8893781 0.73774618 0.78005457 144.33333
-2.2591684 0.92425519 0.68790132 119
-1.9709198 1.111867 0.79098141 43.5
-0.9722414 0.92755347 0.636567 1
-0.3396042 1.029014 0.63423342 14.6
-0.17266902 1.0486832 0.65080994 15.258064
4.7587323 1.0432944 0.74947679 108.70731
4.8772469 1.095029 0.79115468 124
-2.2275443 1.4615496 0.88100994 150
-1.7275293 1.3210423 0.61313051 35
0.020824723 1.234205 0.6227845 5
4.7447772 1.3516189 0.74850625 93.514282
4.8786831 1.4342011 0.76219988 136.5
-2.285743 1.7686801 0.84877425 150
-1.5745798 1.6520256 0.70390838 88
4.7400908 1.6521279 0.77695501 109.93549
4.8778901 1.7767735 0.70816237 135
-2.285969 2.05669 0.77603936 148
2.6650333 2.0914936 0.72465932 61
2.8261714 2.0913248 0.66878629 77.631577
3.1695964 2.0924582 0.71130878 78.875
3.4073124 2.0952351 0.83786887 67
4.7291775 1.9699798 0.77703774 101.73684
4.8759589 1.8605632 0.86026955 135
-2.2751465 2.2845054 0.67673272 78.599998
-1.6274098 2.3768811 0.75065875 48.75
-1.2810326 2.3889835 0.76966411 63
-1.0747292 2.3913305 0.72361809 84.900002
-0.79874641 2.3975132 0.62047189 92
2.6331921 2.2067645 0.73950577 31
2.8520396 2.1266408 0.74637818 36.290909
3.1454334 2.1210856 0.76022828 45.315788
3.4509532 2.1301677 0.75088161 48.944443
3.7532406 2.1378849 0.75063431 58
4.0282373 2.14991 0.74069262 75.205879
4.3420959 2.1615763 0.7802757 71.96875
4.6090379 2.163321 0.79733127 68.954544
-1.5615475 2.4830513 0.8624779 110
-1.330426 2.4832921 0.83549666 107.5
-1.027882 2.4507353 0.79116201 59.416668
-0.72249508 2.4110398 0.73814911 79.900002
-0.41643664 2.431402 0.75955236 77.85714
-0.14403775 2.4456561 0.79225409 65.736839
0.16040601 2.4583719 0.75990969 82.611115
0.46125141 2.4665728 0.73700303 90.340424
0.75558579 2.4735088 0.76493543 76.322037
1.0518812 2.4775412 0.75441116 53.462688
1.3488011 2.4916427 0.75579816 34.197674
1.6490668 2.4966278 0.76307273 36.958904
1.9395111 2.5032561 0.75243634 37.150002
2.2466068 2.5163317 0.74924737 43.194443
2.5126667 2.5035529 0.73224974 42.619999
2.7572641 2.4343679 0.72928494 106.75
3.9148681 -5.461926 1.1092206 0
-2.1463256 -1.5511643 1.126467 125.75
-1.8945179 -1.5672302 1.1076063 44.75
-1.3718833 -1.5305779 1.1294142 30.799999
-1.0119559 -1.550961 1.0959195 30.777779
-0.68559647 -1.5417866 1.0767968 25.913044
-0.39445683 -1.5762891 1.0469004 21.638889
-0.14853488 -1.5728356 1.0398082 12.563637
0.12849393 -1.5510406 1.0156765 10.819673
0.46015981 -1.5458454 1.0459217 13.367347
0.74232703 -1.5391229 1.0429348 6.8292685
0.95868546 -1.5350338 1.0254127 6.681818
1.4669231 -1.6933439 0.95278132 7
1.5597737 -1.6619761 1.0141364 6.8461537
2.0380707 -1.6742587 1.0576411 4
2.2114542 -1.6324409 1.0505062 4.0843372
2.5421193 -1.678589 1.0779864 0.66666669
2.8479831 -1.6671981 1.07117 0.82978725
3.1467855 -1.5916568 1.0670933 3.0172415
3.7411001 -1.6015824 1.0990621 14.608696
4.086195 -1.5659045 0.97754455 7.6363635
4.31359 -1.5779248 1.0756165 1.2
4.6597214 -1.6139119 1.0481602 0.61538464
4.8517609 -1.6092992 1.0253822 28.75
-1.8493139 -1.4962723 0.96261477 30
-1.460507 -1.4937971 1.0215135 27
-1.0511981 -1.4853559 1.1343732 20
-0.73135674 -1.4831785 1.0366695 20.4
-0.35631886 -1.4879024 1.0256078 8
-0.11233258 -1.4798044 1.0791008 5
0.18696491 -1.4727213 1.0503327 13.047619
0.42592558 -1.4628333 1.0449417 10.326087
0.76572871 -1.4742106 1.0213227 9.1333332
1.0807548 -1.4423788 1.0771061 11.675
1.3446935 -1.3990362 1.0495013 11.807693
1.5514613 -1.3937531 1.0587853 8.6428576
3.8136685 -1.4792222 1.0508708 18.642857
3.9472983 -1.4808298 1.0396477 6.3333335
4.8497229 -1.3468394 1.0603139 116.08334
-2.1753504 -0.92120701 1.1446481 27
4.7922449 -1.1206224 1.0583725 53.200001
4.8323894 -1.0361753 1.0428704 102.29166
-2.1866658 -0.72688293 1.1794417 132.14285
-1.4135038 -0.80336148 0.91457713 0.875
-0.80274993 -0.64372939 0.9166159 0
4.8258352 -0.76733822 1.0585549 120.72414
-2.1996546 -0.41949099 1.0800809 131
4.7969046 -0.33279601 1.0350624 115.5
4.8175735 -0.48639551 1.0402679 117.0303
-2.2061591 -0.13627355 1.0985339 113.7619
4.7830524 -0.15820128 1.0111418 101.31035
4.8253894 -0.15221199 1.0249687 107.11111
-2.2186444 0.13958797 1.0859429 119.94736
4.7857771 0.14785475 1.0163407 117.42857
4.8684506 0.086937726 1.0137783 121.71429
-2.2350299 0.42774424 1.0954846 112.58334
4.7753844 0.45527923 1.0502517 117.43903
4.8934727 0.44044286 1.0382783 142.39999
-2.2512548 0.75934911 1.0896572 123.18182
4.7688627 0.74450994 1.0642759 108.02439
4.8902445 0.77262831 1.0429142 139
-2.2601538 1.0584279 1.1197553 128
4.7566004 1.0493313 1.0531338 105.2
4.8731203 1.0843561 1.0720286 103.5
-2.2640529 1.3366288 1.0830239 141.38461
4.7397041 1.349906 1.0549097 88.394737
4.8760209 1.3610843 1.0734742 115.25
-2.2757323 1.6688957 1.0657792 140.36363
4.7379818 1.6472441 1.0696892 110.55882
4.8821139 1.6182178 1.0348265 132.2
-2.2883716 1.946552 1.0752389 130.33333
2.6683111 2.094847 1.0985107 101
2.8270929 2.0942833 1.0865207 93.400002
3.0203831 2.0967011 1.0463557 63
3.9827609 2.096822 0.96341097 55
4.7319837 1.9625545 1.0741148 105.70968
4.8745422 1.9299889 1.0406159 127
-2.2485898 2.2852647 1.044943 77.818184
-1.9313703 2.3839977 1.1541533 44.5
-1.63694 2.3876185 0.95837796 40
-1.2694467 2.3859658 1.0021212 99.199997
-1.0773697 2.3937688 0.97924125 103.22222
-0.886024 2.3984962 0.91242898 96
2.6353731 2.2057869 1.0726315 59.580002
2.8420269 2.1232862 1.0669776 56.929577
3.1499395 2.1311047 1.0674893 54.736843
3.4531715 2.1408942 1.0835981 64.444443
3.7599976 2.1526051 1.0351975 66.685715
4.0578542 2.1624734 1.0363483 68.285713
4.3538065 2.1694326 1.0436876 66.884613
4.6341166 2.1600273 1.0599763 60.099998
-1.5792184 2.4645329 1.0333172 83
-1.3405194 2.4650452 1.0355474 90.181816
-1.0277363 2.4423773 1.0190344 79.63636
-0.7641443 2.4219162 1.0223694 72.521736
-0.47001448 2.4362273 1.0081887 78.5625
-0.14026895 2.4445922 1.0770319 74.699997
0.19436534 2.4640093 1.0665313 77.833336
0.44964847 2.4619355 1.0308087 72.824997
0.75118792 2.4759617 1.0475777 77
1.0604572 2.4833493 1.0577459 47.423729
1.3543994 2.5018051 1.0542048 30.68116
1.6588287 2.5068774 1.0594451 28.232876
1.949514 2.5129757 1.0700598 29.770269
2.2525942 2.524749 1.0666524 37.836365
2.5329707 2.5014231 1.0375897 43.864864
3.8373547 -5.4425735 1.3502805 0.5
4.5791802 -5.4060712 1.3804107 0
4.9061999 -2.5320449 1.4735527 1
-2.1439562 -1.5625226 1.2847358 105
-1.8888248 -1.5931503 1.3902494 23
-1.607617 -1.5402318 1.3926071 20.333334
-1.3591669 -1.5336953 1.3636695 24.461538
-1.0207633 -1.5398586 1.3432893 17.9
-0.65855879 -1.5334103 1.2893839 16.09091
-0.42526305 -1.5582383 1.3587961 7.2413793
-0.13539785 -1.5583313 1.3541273 7.2592592
0.15515961 -1.5539972 1.3153456 6.9333334
0.44173712 -1.5426636 1.3276441 19.902439
0.74985904 -1.5483611 1.3495175 7.652174
0.98899812 -1.5318394 1.3790963 6.6428571
1.4792764 -1.6514206 1.3523953 11.2
1.5640813 -1.645159 1.3288188 4.5
2.0425997 -1.6613996 1.3498483 3.275862
2.2148733 -1.6132473 1.3169576 4.5454545
2.5577903 -1.6617917 1.2713652 0.11764706
2.8435261 -1.6498665 1.2716038 0.53658539
3.1235387 -1.6030623 1.2922639 2.8461537
3.5205386 -1.6025959 1.3714423 36.333332
3.6873636 -1.6436237 1.2825166 18.043478
4.0887222 -1.5338086 1.2610823 9
4.3590555 -1.5815889 1.3611701 0
4.6966124 -1.6354673 1.3385736 1.2
4.845757 -1.5959738 1.3108894 52.4375
-2.1548765 -1.3856291 1.3523301 77.615387
-1.5637975 -1.4941535 1.3660669 9
-1.4533553 -1.4947746 1.2344283 24
-1.0554347 -1.4848121 1.3065355 13.25
-0.67447436 -1.4775316 1.3984653 9.25
-0.41206324 -1.4791784 1.3221798 4.8888888
-0.14115423 -1.4751544 1.3636597 5.5
0.15800917 -1.4716361 1.3793136 5.9142857
0.39838573 -1.4565339 1.3302934 12.052631
0.77499753 -1.4716306 1.346409 7.4545455
1.1061978 -1.4386692 1.3721186 6.25
1.345459 -1.3930315 1.3490885 7.4814816
1.5517579 -1.386139 1.3596601 6.4400001
3.5339861 -1.4692196 1.4091965 44.416668
3.7081645 -1.440483 1.3373611 40.216217
3.962554 -1.4208295 1.3495651 16.529411
4.8385611 -1.3420233 1.3198045 113.69231
-2.1499863 -1.0433505 1.3525757 105.93333
4.7925038 -1.1760325 1.4373983 48
4.8322029 -1.048512 1.3554904 92.521736
-2.1544356 -0.71867085 1.3892416 106.53846
4.8241267 -0.7483598 1.3664982 111.89286
-2.1767387 -0.43105629 1.3547685 101.69231
4.7965579 -0.39995694 1.3712822 116.5
4.8231406 -0.47179097 1.3815148 114.26087
-2.1885724 -0.14263861 1.3642061 102.62963
4.7863097 -0.15423582 1.3652781 88.40741
4.8358002 -0.15403777 1.4035026 129.22223
-2.2140989 0.14377999 1.3281871 102.5
4.7870178 0.15176089 1.3543875 104.69697
4.8321662 0.13624676 1.4239646 131.66667
-2.2274911 0.42192161 1.3287684 107.88235
4.778132 0.45035705 1.389516 100.40909
4.8868489 0.40983534 1.4158899 128
-2.2531681 0.77229595 1.3694782 129.33333
4.7736683 0.75643289 1.4274646 96.344826
4.8832216 0.75980473 1.4318519 127.5
-2.2627521 1.0752233 1.3426175 134.33333
4.7603688 1.0591387 1.3968241 85.851852
-2.2732947 1.3887938 1.2909608 113.36364
4.7419219 1.3616874 1.3875263 75.25
4.859508 1.2247928 1.3893805 82
-2.2838182 1.6567055 1.3312293 112.1875
4.7379642 1.6552835 1.3883642 95.684212
4.8661895 1.6077657 1.4259338 138
-2.2939909 1.9532779 1.3423156 110.6
2.8298063 2.0872021 1.2570883 64.666664
3.0783095 2.0966384 1.2908832 78.5
3.3187211 2.0991955 1.4234461 60
4.7235618 1.9572282 1.3293519 95.095238
4.8617983 2.005697 1.4684579 120
-2.2846231 2.2292156 1.3020203 96.5
-1.8590542 2.3947287 1.2046728 49
-1.7046518 2.393868 1.4216577 62.5
-1.3869197 2.3907228 1.3716279 91
-1.1884956 2.3966944 1.3316358 95
2.6409078 2.2079632 1.3315103 53.333332
2.8440292 2.1357343 1.3209693 65.763634
3.1594238 2.1359353 1.3353001 65.71698
3.4538491 2.1435184 1.3052557 68.061226
3.752552 2.1604106 1.3436166 71.949997
4.031682 2.167695 1.3542665 66.400002
4.3310595 2.1805611 1.3794851 71.173912
4.6454797 2.1678584 1.3318452 55.863636
-1.5283017 2.4697771 1.3552375 84.199997
-1.320757 2.446327 1.4006194 73.875
-1.036487 2.4474981 1.398232 92.92308
-0.75897616 2.4448297 1.3939865 75.258064
-0.42627722 2.4428849 1.4055755 73.814812
-0.12539816 2.4540906 1.3667265 78.047623
0.18694891 2.477056 1.3307458 85.23333
0.43739635 2.4810543 1.3363128 77.975609
0.7433092 2.4881492 1.3340031 79.75
1.0379442 2.4898624 1.3249176 63.574074
1.3276101 2.5028801 1.3268878 48.169811
1.6380601 2.5062225 1.3105578 51.026318
1.9624016 2.5179126 1.3000677 42.904762
2.2512743 2.5300007 1.3151962 40.060608
2.5297785 2.5079362 1.3306947 46.226414
2.7352691 2.4806342 1.2603917 84
1.7980964 -6.0485592 1.5552016 0
2.0286744 -6.0032706 1.7160249 0
3.9886239 -5.4410782 1.6107868 0
4.7804875 -5.4008765 1.5631789 0
4.898036 -2.4131742 1.5574213 0
3.5668569 -1.8287045 1.7691818 0
3.934978 -1.826162 1.5848625 6
-2.1362741 -1.5575817 1.688008 92.75
-1.9236382 -1.559451 1.6665087 27.777779
-1.6599145 -1.5554472 1.6120001 11.25
-1.3273556 -1.5214415 1.6885151 17
-1.0647736 -1.5431206 1.7056347 12.2
-0.70791388 -1.538824 1.6680779 9.6800003
-0.43036798 -1.5523449 1.631675 6.9047618
-0.15603469 -1.5567378 1.6319979 5.5972223
0.13890709 -1.5385065 1.6487283 5.3571429
0.45988664 -1.5453582 1.666945 7.7600002
0.73368859 -1.5426835 1.6423517 5.814815
0.92307657 -1.5321831 1.5932064 6.6666665
1.4737172 -1.6226931 1.6951431 6.125
1.576811 -1.6613557 1.6587942 4.9230771
2.0550523 -1.6486669 1.6474679 6.2222223
2.207063 -1.5862389 1.6392442 7.060606
2.5287027 -1.6163898 1.6472495 3.7037036
2.8511918 -1.582755 1.6436763 5.1666665
3.1355329 -1.5692987 1.642309 6.2142859
3.5001101 -1.7015136 1.6038096 18.049999
3.6820221 -1.7281477 1.5856328 3
3.978256 -1.5152539 1.538335 8
4.4340086 -1.570057 1.6567649 0.25
4.6563048 -1.583428 1.6455526 0.44444445
4.8544726 -1.5683812 1.6166443 84.444443
-2.1438482 -1.3721262 1.680131 75.647057
-1.0928798 -1.4925525 1.6745143 10.25
-0.70167005 -1.4633989 1.6234939 6.4285712
-0.44745192 -1.4716258 1.6050366 4
-0.13784836 -1.4864278 1.6248056 5.2727275
0.1256523 -1.4743978 1.6433338 5.181818
0.42172194 -1.4647412 1.6129572 9.878788
0.7893157 -1.4669037 1.6698654 6.2800002
1.0633409 -1.438416 1.616577 4.8055553
1.3416735 -1.3891236 1.6475453 5.625
1.5456771 -1.4054681 1.6159265 5.5652175
3.1682897 -1.4970526 1.7120426 6
3.4419594 -1.438798 1.6674589 35.058823
3.7580643 -1.3824106 1.6348853 6.9444447
4.0537095 -1.4167985 1.6481595 6.5
4.2295957 -1.3480806 1.7457759 6.5
4.8446722 -1.3651292 1.6519022 109.4
-2.1400506 -1.0537082 1.6710591 98.625
4.7926846 -1.1275008 1.740621 37
4.8317037 -1.0404389 1.6613272 96.434784
-2.1578319 -0.73844498 1.6612527 100.34615
4.8289242 -0.74045217 1.6614795 108.12122
-2.1700399 -0.44862342 1.6658341 96.949997
4.7986708 -0.36102819 1.6216253 97
4.8214974 -0.45310882 1.6422944 108.93104
-2.1790991 -0.15350266 1.6652366 100.17949
4.7829876 -0.17274013 1.67251 77.391304
4.8307467 -0.1064841 1.6475471 116.7
-2.2155006 0.14518112 1.6599942 106.25806
4.7873755 0.14210117 1.6439025 99.058823
4.8522635 0.14204659 1.6655874 127.28571
-2.2211988 0.43792146 1.6656483 103.38461
4.777885 0.44086409 1.6194053 92.743591
4.852664 0.45334578 1.6245277 138
-2.2404692 0.73583877 1.6773919 103.26087
4.7677479 0.75129706 1.6748112 91.933334
4.8842378 0.69454306 1.6646615 131.33333
-2.2557948 1.0300667 1.6992633 113.88235
4.7590275 1.0549935 1.6742885 87.88372
4.8741693 1.0087273 1.6626221 117.8
-2.2650921 1.3547635 1.6634375 113
4.7422571 1.350227 1.6742582 73.868423
4.8743463 1.3812946 1.6629961 129.75
-2.278542 1.6561801 1.6512183 114.21429
4.7420263 1.65184 1.6366061 99.384613
4.8737302 1.7178717 1.68656 124.33334
-2.2893338 1.9502747 1.6342813 111.1875
2.8862922 2.0973837 1.7317961 55
4.7350383 1.9422724 1.6465315 100.02941
4.8719821 1.8633504 1.7473121 132
-2.2478547 2.2807541 1.6810734 85.789474
-1.9497132 2.3827045 1.6998073 69
-1.657613 2.3904839 1.5878856 85.545456
-1.4005501 2.3977659 1.5426584 91.199997
2.6448512 2.1860819 1.6244634 81.176468
2.8629756 2.1377361 1.6379309 68.84375
3.1476686 2.1427183 1.6531425 63.384617
3.4581223 2.1569593 1.635295 61.777779
3.7640259 2.1614654 1.6261785 58.333332
4.0565863 2.1794598 1.6190791 64.42308
4.3305001 2.1835136 1.6457106 61.157894
4.6362104 2.1803362 1.665359 53.21212
4.8280654 2.1193953 1.6722931 68
-1.9097285 2.4096713 1.7255161 35.5
-1.6239376 2.4370162 1.6423513 59.25
-1.3360387 2.4420125 1.6486694 85.92308
-1.0428265 2.4353218 1.656906 72
-0.71300215 2.4570277 1.6378883 75.210526
-0.41782364 2.465569 1.6865133 74.73333
-0.10843868 2.473053 1.6710477 73.272728
0.16641796 2.4811354 1.6781638 78.257141
0.45612788 2.4860899 1.6581141 72.291664
0.73441303 2.4912133 1.6165169 76.677422
1.0215845 2.4974959 1.6677243 73.25
1.352964 2.5052857 1.6691242 51.625
1.6563265 2.5132363 1.6363099 44.950001
1.9411926 2.5194345 1.6509407 41.040001
2.2500463 2.5319669 1.6504898 43.633335
2.5399544 2.5199239 1.634611 49.5
2.0497458 -5.9728537 2.0066953 0.5
3.9609404 -5.4187832 2.0313926 0
4.509234 -5.4167433 1.9094677 0
1.548008 -1.8473381 1.9432446 1
4.8381004 -1.8406503 1.8440449 0
-2.1372159 -1.558695 2.0269392 101.16666
-1.8710934 -1.5409089 1.9436301 9.818182
-1.6538337 -1.5698861 1.9710623 8.7857141
-1.3992767 -1.5440899 1.9563713 8.772727
-1.0551298 -1.538425 1.9367332 10.416667
-0.66080588 -1.5521348 1.9540567 8.6000004
-0.42344722 -1.5355217 1.9239933 6.8400002
-0.1553188 -1.5451579 1.9487059 4.8888888
0.11077629 -1.5238552 1.9610723 6.2666669
0.48010588 -1.5419685 1.9291095 14.692307
0.73602378 -1.5350953 1.9066738 5.2666669
0.95258909 -1.5141383 1.9212971 5.6666665
1.4592378 -1.6482127 1.9745785 5
1.6123049 -1.6543949 1.9468341 11.882353
1.9524944 -1.6363518 2.0057051 5.9565215
2.1847854 -1.5942838 1.9220926 6.9375
2.521224 -1.6429372 1.9741007 0
2.8795648 -1.640349 1.9744139 0
3.1654799 -1.5773647 1.9732049 6.9000001
3.39429 -1.6012548 1.8368245 58
4.4836125 -1.5620202 1.9304409 0.33333334
4.7197104 -1.5903207 1.9780034 0.72727275
4.8263907 -1.5346117 1.9687122 56.166668
-2.1361148 -1.3247846 1.9524291 72.388885
-2.0889511 -1.2880806 1.975107 25.5
-1.5626651 -1.4945191 2.0051119 7
-1.3787134 -1.4945875 1.9727159 12
-1.1307462 -1.4908223 1.987813 6
-0.69385409 -1.4805704 1.9241685 5.1666665
-0.15836729 -1.4794278 1.9029173 4.3333335
0.23500924 -1.4506637 1.9411329 6.1666665
0.4285132 -1.471947 1.9728292 12.3
0.7834065 -1.45231 1.950019 4.7222223
1.0741731 -1.439236 1.954726 4.304348
1.3158804 -1.3914003 1.9539412 5.25
1.5426604 -1.4099927 1.9365972 4.5
3.245965 -1.4592767 1.9563648 27.384615
3.4793198 -1.378014 1.9310405 9
3.7733648 -1.3693901 1.9652909 10.333333
4.0735264 -1.4060994 1.9371421 6
4.2666273 -1.351032 1.9734513 5.9000001
4.5779138 -1.478776 2.0984843 7
4.8433881 -1.3706617 1.9302136 96.666664
-2.1430497 -1.0529853 1.9719789 85
4.7858911 -1.0928645 2.001375 36.333332
4.8317537 -1.0464661 1.9536164 92.133331
-2.1520147 -0.75022328 1.938084 87.447365
4.8238654 -0.74004257 1.9754318 99.666664
-2.1629648 -0.44525093 1.9505031 89.449997
4.7938199 -0.4338187 1.9673804 87.416664
4.820529 -0.43111625 1.9651682 94.75
-2.180938 -0.1648145 1.9557511 82.59375
4.7801347 -0.14626186 1.9610451 60
4.8394589 -0.12690532 1.9575466 115.5
-2.1932976 0.15525764 1.9678906 87.638885
4.7848535 0.15014584 1.9671756 75.967743
4.8328919 0.1581731 1.9408787 127.33334
-2.210377 0.42919514 1.9623339 91.032257
4.7810607 0.45157847 1.9207596 80.852943
4.8869858 0.51834518 1.8942218 121
-2.2445705 0.74140376 1.9614848 96
4.7719021 0.74281472 1.9289048 82.666664
4.8834829 0.85184026 1.8911564 131.5
-2.259197 1.0563126 1.9432102 97.85714
4.7631803 1.0560827 1.8997668 80.421051
4.8614068 1.1402144 1.9359492 72
-2.2742348 1.3530253 1.9460449 99
4.7436237 1.3617249 1.8950895 68.099998
4.8747258 1.3382899 1.8723855 113.33334
-2.2839632 1.6411064 1.9721318 99.866669
4.737247 1.6393355 1.9219165 74.058823
4.8777299 1.6132801 1.8683281 121
-2.2987149 1.9596539 1.9440247 102.09091
2.8551283 2.096611 1.891525 60
4.7264047 1.930475 1.9715723 79.96875
4.8692827 1.9655014 1.9006822 108.75
-2.2825065 2.2859697 1.9119256 77.53846
-1.9286635 2.3870075 1.9908144 72.199997
-1.6377199 2.3930225 1.96715 76.5
2.6263483 2.2637303 1.966746 71
2.8379858 2.165168 1.8752505 86.285713
3.1627316 2.1390822 1.9362124 73.85714
3.455703 2.1583767 1.9659775 66
3.7668025 2.1831837 1.9356153 58.176472
4.0474472 2.1875372 1.9316614 63.52174
4.3489962 2.2069404 1.9431813 60.5
4.6368408 2.17995 1.9700851 50.583332
-1.9675434 2.4072702 2.0255947 53.25
-1.6303895 2.4429171 1.9397075 60.363636
-1.3323246 2.4525127 1.9517766 74.736839
-1.0393416 2.4593542 1.9368438 71.681816
-0.74395633 2.4617686 1.9263045 74.559998
-0.44148934 2.4675996 1.9386921 72.583336
-0.15081513 2.4731557 1.9457209 68.352943
0.1587725 2.4824636 1.9486905 69.052635
0.45869556 2.4905183 1.9324105 82.851852
0.76089978 2.5017874 1.9158725 83.153847
1.0794331 2.5094402 1.927088 80.125
1.3762782 2.5166545 1.9348998 84.137932
1.65503 2.5234399 1.9411795 84.800003
1.9419428 2.5288904 1.9312282 79.758621
2.2358639 2.5356352 1.9163581 81.548386
2.5100293 2.5321901 1.9296119 85.5
2.7412121 2.4626811 1.9621452 87
2.1865768 -5.9950757 2.2491035 0
-2.1333368 -1.5564554 2.2478294 66.14286
-1.9066252 -1.5645216 2.230299 10.65
-1.6607432 -1.5625036 2.2435808 6.9230771
-1.3684385 -1.5353452 2.2304513 8.5714283
-1.0330091 -1.5273172 2.2466006 7.7777777
-0.68425006 -1.5259541 2.2615254 6.25
-0.43289173 -1.5482579 2.254287 7.2307692
-0.15781832 -1.5484802 2.2142663 8.1000004
0.055479836 -1.5387058 2.2488132 5.8000002
0.43729919 -1.5206898 2.1831629 6.875
0.76213115 -1.5395136 2.209738 6.6666665
1.0153857 -1.5134937 2.2526543 5.8000002
1.4543607 -1.6386616 2.1073182 5
1.7256444 -1.5405691 2.1212864 6
1.9325035 -1.5365645 2.1318715 3
2.1854105 -1.5484291 2.2566483 5.1666665
2.5398514 -1.6446091 2.2617345 0
2.841609 -1.6281577 2.1877596 0
3.1516876 -1.5508082 2.2283437 6.125
4.69837 -1.5151917 2.1235023 7
4.8285804 -1.5081631 2.3937273 71
-2.1417718 -1.3522416 2.2642949 64.90625
-2.0204356 -1.3779249 2.2614613 19.142857
-1.6406794 -1.4699413 2.2835975 4.4285712
-1.3500967 -1.4655043 2.1982667 5.8000002
-1.1335368 -1.4610591 2.2391653 5
-0.81411618 -1.489091 2.3209918 7
-0.45380744 -1.4901628 2.3048291 6.4000001
-0.15366808 -1.4725082 2.2837071 6.5
0.16462348 -1.4682889 2.2294679 8.090909
0.42130622 -1.4749626 2.2529943 22.142857
0.80833399 -1.446595 2.2229357 5.125
1.1348094 -1.4319593 2.2326264 5.625
1.3683932 -1.3869352 2.2382789 5.3125
1.5592321 -1.3869057 2.2209938 6.5714288
3.2259429 -1.4327885 2.2726269 8.6111107
3.4410846 -1.3668196 2.2321291 7.6666665
3.7593462 -1.3669063 2.233763 7.8125
4.0991402 -1.3585376 2.248724 5.8823528
4.3294153 -1.3195894 2.2702672 5.7142859
4.6584163 -1.4762843 2.1359172 6.1999998
4.8388224 -1.3520256 2.246464 84.400002
-2.1592076 -1.0548496 2.2648585 90.542854
4.7910976 -1.0999982 2.2700241 30
4.8255916 -1.0325335 2.2621262 86.083336
-2.168541 -0.76033098 2.2450638 90.676468
4.7965007 -0.6591804 2.2078607 79.666664
4.8214908 -0.73744506 2.2617638 89.206894
-2.1778595 -0.45749116 2.2500074 90.448273
4.794487 -0.41164294 2.2369907 96.416664
4.8172898 -0.47784472 2.2403486 91.900002
-2.1868727 -0.16044819 2.2483189 95.111115
4.7822227 -0.15993589 2.2501762 62.037037
4.8258429 -0.17879882 2.2493424 89.75
-2.1925988 0.13386339 2.2681847 89.214287
4.7808666 0.12886471 2.2327235 88.791664
4.8300538 0.13451281 2.1986661 119.85714
-2.2247312 0.42383626 2.2698345 90.519997
4.7695146 0.45391753 2.2447746 93.75
4.8346825 0.4370884 2.2233031 117.4
-2.2458436 0.74285823 2.2309902 92.166664
4.7699323 0.74854553 2.2532628 98.631577
4.8552718 0.7588045 2.2787676 120
-2.2604613 1.0462325 2.2402244 89.050003
4.7599702 1.0563403 2.27456 98.545456
4.8815994 1.0645579 2.3663213 136
-2.2751422 1.3621757 2.2738807 89
4.7465243 1.3488988 2.2919276 76.818184
4.8756676 1.2537338 2.2235513 111
-2.288367 1.661195 2.2629154 99.181816
4.7441859 1.6544806 2.294333 89.449997
4.8702927 1.6326504 2.2750449 119
-2.2959967 1.9371992 2.2230608 97.066666
4.7310905 1.9809687 2.2520351 88.470589
4.859817 2.0255342 2.3395345 126
-2.2759526 2.2690492 2.2204447 75.384613
-1.9226384 2.3916318 2.2400973 69.333336
-1.7086513 2.399014 2.217474 74
2.6375589 2.196588 2.3040028 70.125
2.8347659 2.1602564 2.2743154 70.235291
3.1353388 2.1611156 2.252178 78.444443
3.4732153 2.1646523 2.2699971 68.071426
3.7412617 2.1768038 2.2294936 56.9375
4.0073338 2.1833901 2.2369695 64.176468
4.3534603 2.2092748 2.2486048 58.25
4.66292 2.194098 2.2533994 49.849998
-2.1476231 2.4059906 2.2005301 39
-1.9095221 2.4098773 2.2412283 56.25
-1.6139485 2.4414277 2.25318 61.57143
-1.3462076 2.4379351 2.2746549 66.588234
-1.0811666 2.4462047 2.2689824 68.294121
-0.76041985 2.4693444 2.2776294 63.857143
-0.45488966 2.4829156 2.2651403 66.966667
-0.1406111 2.4910836 2.266149 65.03846
0.15837961 2.4950855 2.2416234 70.516129
0.46658918 2.5016286 2.2631266 73.838707
0.76656288 2.5110691 2.276243 74.269234
1.066125 2.5196674 2.2927952 76.705879
1.3570373 2.528441 2.2904363 75.476189
1.6570052 2.5314727 2.231034 68.608696
1.9435043 2.5338793 2.2386358 72.46154
2.2346261 2.5442536 2.2423999 73.772728
2.5030997 2.5412798 2.2396848 89.272728
3.8037522 -5.4189353 2.5175316 0
4.7614918 -5.3858175 2.6769009 0
4.9522085 -2.8449993 2.5618975 0
-2.1356931 -1.5646263 2.5619221 65.571426
-1.9530095 -1.5742524 2.4932735 7.4285712
-1.674917 -1.5553699 2.5610285 7.5
-1.3433143 -1.5376847 2.5889149 7.1999998
-1.0867378 -1.5326506 2.5294859 7.875
-0.73511535 -1.5323461 2.5049136 5.5
-0.44934595 -1.5286099 2.5434735 7.25
-0.19501844 -1.5396565 2.5435309 5.5
0.049344771 -1.5246885 2.4453514 8
0.45783481 -1.5310434 2.618274 9
0.66590875 -1.5126166 2.5446606 7.6666665
2.1848109 -1.5268636 2.4705765 4.6666665
2.5341344 -1.6391332 2.5803647 0
2.9349787 -1.6318651 2.5053685 0
3.156126 -1.5517925 2.4929841 5.8333335
4.8280592 -1.5204309 2.5256166 51
-2.1438725 -1.3587805 2.537395 70.14286
-1.996128 -1.4122641 2.5459821 13.625
-1.7298149 -1.4546245 2.4833798 4.5
-1.3345466 -1.4622134 2.5182419 4.5
-1.053223 -1.4911833 2.5679216 6.75
-0.77358931 -1.4822617 2.574245 6.3333335
-0.44274139 -1.4891729 2.5026801 9
-0.1022016 -1.4783673 2.4253013 6
0.17920008 -1.4627666 2.5548844 6.3636365
0.44526199 -1.4584856 2.5787592 7.25
0.77985954 -1.4412125 2.5503907 5.5
1.0198002 -1.4591074 2.5039043 7
1.3463645 -1.3760198 2.587817 6
1.585232 -1.3622596 2.5939467 5.25
2.1804519 -1.4918478 2.5621407 1
3.1817842 -1.4360673 2.5542834 10.090909
3.4548621 -1.352095 2.5734327 7.2857141
3.736475 -1.3425717 2.551543 6.5999999
4.0591311 -1.3616822 2.5571012 5.1538463
4.3696914 -1.3165952 2.5608499 5.8461537
4.5916305 -1.3000789 2.618103 3
4.8377638 -1.3416368 2.5627918 80
-2.1470492 -1.059007 2.5346103 76.380951
4.7884879 -1.0382736 2.6029522 23.75
4.8281193 -1.0529814 2.5367272 81.050003
-2.1530328 -0.76205069 2.4921558 78.230766
4.7822433 -0.71703023 2.5981252 49.166668
4.8261895 -0.76915014 2.5205147 89.095238
-2.1628964 -0.47134215 2.5522332 81.35714
4.7858405 -0.43323362 2.5667915 64
4.8289351 -0.44559368 2.497452 91.384613
-2.1686025 -0.1588631 2.5073125 92.099998
4.7745266 -0.13406846 2.5277956 63.692307
4.8644266 -0.069379985 2.4923477 108.2
-2.1900382 0.15779394 2.5510302 93.666664
4.764751 0.16100666 2.5240321 64.071426
4.8457403 0.21906519 2.5542293 98
-2.2277572 0.439154 2.5407398 97.833336
4.765101 0.46042198 2.5194776 77.222221
4.8505411 0.42754507 2.5409682 93.75
-2.2457888 0.73516178 2.5253036 79.714287
4.7503514 0.73745763 2.5214102 67.545456
4.8599639 0.68997532 2.5647771 87.666664
-2.2617595 1.0478309 2.5090048 88.933334
2.6785343 1.1375524 2.6925738 91.666664
2.8855214 1.1156324 2.6943507 93
4.747014 1.0534014 2.5454707 59.214287
4.8692498 0.96971172 2.5345294 109
-2.2785053 1.3598423 2.5409756 83.4375
2.6338205 1.3305151 2.6736662 82.888885
2.7646489 1.3907497 2.6486893 112.625
4.7329469 1.3579607 2.5335724 75.5
4.8650908 1.3463509 2.5319262 93.25
-2.2896914 1.6499679 2.54688 76.571426
2.6020412 1.6576111 2.6025548 86.647057
2.7632587 1.6476847 2.5996883 88.85714
4.7311277 1.6596839 2.5232127 75.454544
4.8527622 1.7104979 2.5823672 84.25
-2.3002789 1.9275202 2.5808966 83.07692
2.620388 1.9376564 2.5465128 84.14286
2.7647309 1.9204918 2.559072 95.285713
4.4666305 2.0192242 2.6963344 91
4.710361 1.9548651 2.533262 68.083336
4.8435841 1.9490433 2.6663609 52
-2.2905219 2.2642105 2.5459571 72.928574
-2.0278134 2.3923523 2.495743 72
-1.7813185 2.3961766 2.4463379 80
2.6128752 2.2480879 2.5043447 81
2.8456025 2.1450534 2.5177577 85.533333
3.1414711 2.1611466 2.5401311 70.35714
3.4367282 2.18086 2.5606103 65.400002
3.7680736 2.2010307 2.5213518 65.666664
4.0633512 2.1908259 2.55159 67.615387
4.3600235 2.2040892 2.6044145 70.3125
4.6608653 2.1832459 2.5560973 63.5
-2.1905637 2.4147635 2.5534518 53
-1.9039527 2.4129982 2.6155674 65
-1.6140012 2.4229012 2.5394814 58.857143
-1.3290597 2.433388 2.5470953 65.666664
-1.0245706 2.4635556 2.5581048 56.166668
-0.75068086 2.470917 2.5690577 66.307693
-0.44772637 2.4793074 2.5750568 64.111115
-0.15861335 2.4894834 2.5759451 66.648651
0.14975718 2.49632 2.5794139 72.025002
0.45541579 2.5077021 2.5957417 71.051285
0.77218431 2.5157897 2.5486403 74.91304
1.0608486 2.520746 2.5179806 74.848488
1.3588167 2.5303922 2.5423322 73.666664
1.6592807 2.5297658 2.5424433 71.199997
1.9580618 2.5321531 2.5289068 74.150002
2.2590606 2.537539 2.5489635 80.684212
2.5338719 2.4981411 2.5439715 85.466667
2.7139153 2.4198651 2.484494 104
1.7241801 -6.0015788 2.9798398 0
1.7999437 -5.959507 2.7990661 1
1.9473375 -5.969749 2.7406225 1
2.2856703 -5.9397125 2.8731592 0
3.4733856 -5.439898 2.945641 0
2.9318116 -4.3991079 2.8587761 0
2.9597898 -3.7603154 2.9566755 0
2.9729714 -3.1589456 2.9875391 3
4.960423 -3.1894774 2.8633347 0
4.9549193 -2.8094471 2.9566455 0
-2.147162 -1.5462768 2.8527875 71.5
-1.8907709 -1.5492991 2.9034033 8.666667
-1.6515173 -1.5366462 2.8752189 8
-1.3047438 -1.5532559 2.8734612 8.5
-1.1041813 -1.5285856 2.8364692 7.125
-0.77371228 -1.5333291 2.8123059 7.25
-0.43562952 -1.5199308 2.8764904 7.3333335
-0.15660387 -1.5114117 2.8407001 7.3333335
0.12199982 -1.5206578 2.8256793 8
0.45010176 -1.5152004 2.8153324 8
2.1847444 -1.5333384 2.869257 5
2.417928 -1.6404113 2.7451801 0
2.8794854 -1.6400774 2.73084 0
3.1405954 -1.55372 2.7898433 4.3333335
-2.1315756 -1.3549341 2.8289526 59.777779
-1.9857689 -1.3925667 2.8825638 6
-1.1295681 -1.4964383 2.8142512 7
-0.75903058 -1.488799 2.860626 6.5
-0.40331602 -1.4733773 2.7790542 6.5
-0.027030997 -1.4712197 2.8927851 8
0.16256897 -1.4745519 2.9013159 6.8000002
0.38995379 -1.4618126 2.8616836 5.4000001
0.76290351 -1.4615257 2.8618419 6.7142859
1.0597537 -1.440827 2.8359139 6.5555553
1.3394356 -1.3697542 2.8707955 7.1999998
1.5562544 -1.372838 2.8107486 6
3.147665 -1.4023825 2.8145058 7.5
3.425312 -1.3364067 2.8370614 8.7142859
3.7861769 -1.3325926 2.8357503 28.545454
4.1042271 -1.3010809 2.8986268 36.46154
4.3573852 -1.2795949 2.8746855 50.421051
4.6288013 -1.2948483 2.849519 51.555557
4.819531 -1.3234963 2.7635741 64
-2.160589 -1.0624828 2.8827112 76.933334
4.4275966 -1.1782261 2.9485502 85
4.7485399 -1.1173279 2.9090168 49.25
4.8297987 -1.0657299 2.8022196 71.199997
-2.1833999 -0.75462288 2.8516641 82.705879
4.7923903 -0.77100849 2.8602655 54.333332
4.8279848 -0.77232426 2.8492203 81.307693
-2.2079222 -0.45736095 2.8787816 90.133331
2.8842747 -0.38926122 2.9786952 87.333336
4.788713 -0.4025616 2.881397 81.25
4.8347082 -0.48630953 2.8678768 99.777779
-2.2226572 -0.14061326 2.8408866 86.46154
2.6873577 -0.094502628 2.980566 80.333336
2.8683808 -0.14167072 2.9335465 116.85714
4.7757707 -0.10191085 2.8873768 66.166664
4.832664 -0.16577387 2.8488355 103.85714
-2.2374587 0.14864966 2.8761318 92.666664
2.6438923 0.1687901 2.9528811 68.571426
2.8062301 0.13887662 2.8939235 101.77778
4.7657619 0.18208465 2.8989017 60.57143
4.8442812 0.15489082 2.8304205 109.25
-2.2467842 0.44988897 2.8772721 97.666664
2.6383619 0.45920521 2.8919907 82.888885
2.7800272 0.45386517 2.8270452 110.36364
4.7058239 0.46213239 2.9176221 79.277779
4.8314724 0.42237386 2.8524373 98
-2.2532465 0.74789464 2.9033346 95.777779
2.6456282 0.75869602 2.8620961 81.5
2.7801282 0.79601717 2.7549026 117.5
4.455977 0.77033705 2.9726315 101.6
4.6884022 0.73634124 2.8868608 82.599998
4.8595304 0.80600333 2.8244662 92.5
-2.2675104 1.0768491 2.834147 86.692307
2.6310723 1.0588381 2.824538 84.277779
2.7560766 0.99874383 2.7195125 92
3.7583477 1.1814667 2.999172 54
4.1233592 1.1393168 2.9659479 105
4.3676515 1.0782949 2.9373868 94.294121
4.6277018 1.0422943 2.8675222 85.615387
4.8537197 1.084461 2.7950239 92.5
-2.2801418 1.400288 2.8341036 76.909088
2.601788 1.339332 2.8338842 63.1875
2.8509581 1.3535353 2.7362449 165
3.8256912 1.3879019 2.9772618 81.166664
4.0736556 1.3809822 2.9163508 98.476189
4.3550081 1.3634114 2.8672714 96.647057
4.6222086 1.345327 2.8139074 87.869568
4.8566599 1.3160152 2.7623506 83.5
-2.2898319 1.6604358 2.8531058 68.5
2.5984395 1.6362386 2.8420937 67.916664
3.5893543 1.5562339 2.9945707 86
3.7807889 1.6906513 2.919682 95
4.0548091 1.6726861 2.8664951 99.314285
4.3314743 1.6353933 2.8217638 103.27586
4.6082149 1.6349403 2.7684584 105.58823
4.8249831 1.6533749 2.796669 79
-2.2740059 1.9509326 2.8849916 70.85714
-1.9545413 2.0001438 2.972681 85.833336
-1.6396823 1.9961809 2.9761224 83.777779
-1.4001287 2.0062912 2.9725411 88.583336
-1.0958445 1.9926161 2.9805093 91.800003
-0.76046264 2.0048418 2.9870489 88
-0.51492584 2.0410011 2.9726715 94.333336
-0.098179974 2.0593953 2.9812217 82
0.14857413 2.009948 2.995311 92.333336
0.3196184 2.0475509 2.9927015 95
0.81707019 2.058825 2.9932234 92
0.97051281 2.0839467 2.9793532 78
1.3825427 2.0533164 2.9903915 85.75
1.7418754 2.0424812 2.9868906 74.75
1.9444914 2.0450933 2.9853835 97.400002
2.1471558 2.0614393 2.9867589 108
2.5784707 1.9828899 2.9000368 57.700001
3.1885245 2.0340788 2.9417846 101.33334
3.4620092 1.962764 2.9172235 97.933334
3.7592955 1.9709163 2.8699145 91.451614
4.0448322 1.9375939 2.8199036 99.777779
4.3332224 1.9179258 2.7580554 100.57895
4.6101832 1.9504077 2.7382579 97.07692
4.8290958 2.0550311 2.7400227 53
-2.2400723 2.277416 2.8466649 74.444443
-1.9097028 2.248291 2.9285889 87.058823
-1.6383741 2.2565975 2.9185097 90.588234
-1.3454921 2.2617385 2.9204409 88.571426
-1.0374359 2.2528834 2.9289548 95.789474
-0.73860079 2.2510061 2.9335108 91.789474
-0.44881254 2.243686 2.9423633 88.714287
-0.16186504 2.2578485 2.9270852 100.22222
0.13875957 2.2315562 2.9384522 99.285713
0.46271434 2.274725 2.9432454 94.388885
0.77306837 2.2593203 2.9549897 96.411766
1.0631425 2.2950649 2.9547949 93.037041
1.3434744 2.2977405 2.9662368 90.121216
1.6477239 2.2654877 2.9642103 90.064514
1.960065 2.2558823 2.9666619 95.46875
2.2546148 2.2401574 2.9636755 97.545456
2.522562 2.2483032 2.8823864 100.14286
2.8852205 2.1630483 2.8677907 100.84615
3.1599183 2.1644313 2.807868 84.227272
3.4559639 2.1617332 2.8311458 87.166664
3.750057 2.1742189 2.8052039 72.421051
4.0532184 2.1362841 2.7774992 91.777779
4.3530226 2.1859698 2.7124021 103.6
-2.2684038 2.4023297 2.7678962 61
-1.943115 2.4149911 2.8215485 72.888885
-1.6319205 2.4279039 2.791934 72.07692
-1.3505445 2.4367037 2.8198605 74.8125
-1.0265383 2.4466803 2.8126817 76.599998
-0.7582984 2.4724917 2.8064654 66.962959
-0.4456417 2.4731102 2.7914839 74.730766
-0.14675266 2.4832804 2.7891445 71.916664
0.14730285 2.4910908 2.7879162 77.879997
0.45141411 2.4950194 2.8286521 80.099998
0.7445274 2.5004411 2.8601553 83.119049
1.039204 2.493885 2.8781648 88.540543
1.3567771 2.487289 2.8796344 85.535713
1.6585884 2.5033996 2.8633637 88.08696
1.9383466 2.5253506 2.8606436 87.349998
2.2406542 2.5086012 2.870482 85.599998
2.4984672 2.5415998 2.8153894 98.714287
1.8409469 -5.852293 3.1515174 1
2.3245816 -5.908196 3.0984488 1
3.4041984 -5.417716 3.1019437 1
3.922966 -5.4103484 3.0247471 0
3.4692254 -5.1412454 3.1973467 0
3.7593462 -5.3767257 3.1003416 1
3.5038803 -4.8250704 3.2520673 0
3.7889893 -4.9133401 3.1793928 0
4.3141999 -4.9251108 3.0216506 0
4.2388582 -4.6880388 3.0707188 1
4.0461559 -4.3361073 3.1352379 0
3.753166 -4.0699568 3.223227 1
3.9023392 -4.1647668 3.1933229 0
3.5462646 -3.8167713 3.2908423 2
3.6796069 -3.8769183 3.2787344 2
4.6900787 -3.6727204 3.1770706 0.2
4.4677315 -3.381407 3.276228 0
4.6382422 -3.4284751 3.2350025 0
2.9447744 -3.0806396 3.0099354 5
2.8405793 -2.8513367 3.0626066 4.1666665
4.3911176 -2.7901673 3.2575853 0
4.5774708 -2.9000325 3.2035706 0
4.7346578 -2.6817844 3.2054451 1
1.7364357 -1.9107268 3.2846003 1
1.9932098 -1.9167794 3.2891073 0.5
2.2202148 -1.8938932 3.2622826 0.66666669
-2.1539769 -1.5364774 3.164572 74.5
-1.9586649 -1.5341661 3.187772 39.714287
-1.6446682 -1.5318415 3.1613388 25.6
-1.3889133 -1.5375175 3.1453853 25.142857
-1.1009809 -1.5221664 3.1538851 15.5
-0.75607967 -1.5215176 3.1767533 13.333333
-0.44491112 -1.5196308 3.0219822 7
0.25485194 -1.5513061 3.0140221 4
0.3780084 -1.5070125 3.2434049 19
2.1817162 -1.5970101 3.1432357 4.25
2.5870137 -1.5645128 3.2470574 14.5
2.7921436 -1.5570252 3.1733253 37.75
3.1841767 -1.5675694 3.1307623 7.6666665
-2.1628444 -1.3336909 3.1445632 78.400002
-1.9650869 -1.4532057 3.2706802 43
-1.6608063 -1.4359404 3.2558494 59.400002
-1.3736739 -1.4477137 3.2649522 70.75
-1.0110103 -1.4350468 3.2646501 56.42857
-0.65483433 -1.4690913 3.1516182 30
-0.42979589 -1.4476917 3.2004514 33.714287
-0.08885397 -1.4322474 3.1977768 39.076923
0.15158944 -1.4082612 3.2116177 53.333332
0.43934861 -1.4213737 3.198776 38.5
0.74886626 -1.3832729 3.1933477 46.3125
1.0411217 -1.4041375 3.2009842 46.285713
1.3547992 -1.3766265 3.1484439 21
1.6355712 -1.3829538 3.2064109 41.857143
1.9460516 -1.4037265 3.2535577 37.57143
2.3128929 -1.3723543 3.2548351 59.75
2.5467358 -1.3712944 3.2415459 74
2.8422115 -1.3940465 3.1716652 72.800003
3.1527913 -1.3311003 3.2077019 51.42857
3.470226 -1.3221442 3.1129017 63.083332
3.7543921 -1.2592309 3.0815673 79.25
4.0484581 -1.2624824 3.0425265 73
-2.1749859 -1.0524237 3.1544051 89.5
2.6930375 -0.92114884 3.2176075 65
2.7901337 -1.0532094 3.1523149 92.444443
3.2720191 -1.1997926 3.1828885 47
3.5518091 -1.193885 3.121732 57
3.7335751 -1.1803952 3.173887 43.666668
4.0933952 -1.1612513 3.1653628 50.5
4.3887229 -1.1588147 3.1126528 52.666668
4.6612802 -1.0593492 3.2122889 79.25
4.8353796 -1.0576169 3.1014924 79
-2.185987 -0.7500034 3.1474698 91.157898
2.6868005 -0.7370674 3.1438289 65
2.7965782 -0.72481102 3.0914416 99
4.1401215 -0.60945487 3.2921891 79
4.3497415 -0.73636591 3.271014 91.199997
4.6673422 -0.75300068 3.2029276 87.352943
4.8355126 -0.75713044 3.0519636 92.166664
-2.1988699 -0.4710286 3.1001713 93.5
2.6898067 -0.46564546 3.082304 76
2.7650425 -0.50967437 3.0350142 108.33334
4.1015615 -0.41370058 3.2626977 93.6875
4.3287587 -0.44860882 3.2167675 96.384613
4.6826243 -0.45040676 3.1479301 89.277779
4.8337708 -0.37831458 3.0088944 72
-2.2214279 -0.1516788 3.1084628 89.400002
2.6939633 -0.19527774 3.0641167 79
3.837924 -0.12816322 3.2671721 90.916664
4.0763311 -0.14678419 3.2164521 92.714287
4.3379536 -0.15469201 3.1650419 98
4.6725936 -0.12653235 3.0946672 90.083336
4.8255606 -0.083296113 3.0159006 70.5
-2.2249854 0.1403992 3.0945785 90.166664
-1.9318953 0.28929153 3.290601 70
0.22801475 0.22864211 3.251693 18.333334
0.32844222 0.2667698 3.2399461 26
2.6518927 0.13643524 3.1410923 73.625
3.4953697 0.24886853 3.2735233 100.5
3.7904282 0.13891216 3.2273796 85.315788
4.088695 0.15687709 3.1570985 96.86364
4.3210139 0.16864245 3.1147752 98.625
4.6465859 0.14533252 3.0477731 94.230766
-2.2252584 0.44919693 3.1172047 75.529411
-1.975453 0.47281757 3.2653265 69.333336
-1.6437727 0.50745791 3.2695842 83.400002
-1.3437666 0.46581125 3.283498 82
-1.1082401 0.52046937 3.2774067 77.25
-0.77131116 0.48074132 3.2835252 65
-0.3060967 0.53515548 3.2860825 71
-0.17749238 0.54987991 3.29844 75
0.2611129 0.46063432 3.1710343 26.200001
0.31730086 0.38656986 3.1868124 27.5
2.6305923 0.45331582 3.0966301 92.5
3.4842477 0.41867968 3.2415743 108.18182
3.7697799 0.44903293 3.1733253 87.947365
4.0501142 0.43658888 3.1109028 95.518517
4.3455253 0.43054408 3.0606308 101.5
4.5915613 0.40860963 3.0133128 97
-2.2364109 0.73205471 3.1100452 79.428574
-1.9433417 0.74882758 3.2138152 72.722221
-1.6724528 0.79195029 3.2079263 79.63636
-1.3103057 0.74736404 3.2335241 80.625
-1.0377429 0.76136923 3.2362056 74.800003
-0.79748595 0.72292745 3.240437 74.5
-0.42517361 0.75149888 3.2562962 73.666664
-0.2343332 0.7397368 3.2577732 74.777779
0.17753421 0.74197823 3.2229259 57.692307
1.9946532 0.76215464 3.2665451 93.5
2.2554777 0.75950205 3.2710345 88.14286
2.5738835 0.75152707 3.2127602 88.105263
3.2921381 0.88275599 3.1893687 102
3.4598708 0.76326776 3.1803648 97.692307
3.7666545 0.74919361 3.1123426 89.96154
4.0081697 0.72597384 3.0672491 100.33334
4.2928748 0.75604469 3.0286241 95.800003
-2.2394996 1.0336754 3.1078742 66.199997
-1.9205108 1.0639482 3.1595051 75.599998
-1.642579 1.0701741 3.1570928 76.823532
-1.3108035 1.0400492 3.1786268 84.833336
-1.0326409 1.0474536 3.1846948 74.090912
-0.80316353 1.0360644 3.1836753 80.5
-0.36350366 1.0853351 3.1860592 72
-0.17808095 1.0752425 3.1917682 75.444443
0.21348982 1.0479938 3.1940062 82.416664
1.9941489 1.0946246 3.2009327 89
2.287257 1.0458648 3.2173483 86.785713
2.6048841 1.0438343 3.1525955 89.26667
3.2029445 1.0713084 3.1688056 104.2
3.4677165 1.0741476 3.1147046 98.14286
3.7364597 1.0404167 3.0620358 96.258064
4.0080428 1.0066359 3.022351 95.833336
-2.2155967 1.3175772 3.0933249 79.181816
-1.9457049 1.3570765 3.0988386 78.36364
-1.6618799 1.3560314 3.1051583 81.5
-1.3574156 1.3536856 3.1085165 81.0625
-1.0010562 1.3148354 3.1348791 81.333336
-0.84529048 1.3887526 3.129015 71.333336
-0.39258865 1.3861561 3.1245236 74
-0.098274171 1.3673573 3.1300347 74.444443
0.20183744 1.3126228 3.1373074 85.25
0.36233291 1.4143122 3.1225181 90.714287
1.7012067 1.331552 3.1544333 96
1.9607948 1.3964144 3.1439769 87.199997
2.2587512 1.3498844 3.1638119 91.214287
2.5819769 1.3213338 3.1327522 91.400002
3.1738279 1.3751905 3.1122515 111.55556
3.458648 1.3534876 3.0700781 101.29412
3.7227817 1.3296292 3.0336909 93.099998
3.9591656 1.2999835 3.0201674 88
-2.1920476 1.6235846 3.0511215 77.727272
-1.9316182 1.6517431 3.0436232 77.727272
-1.6520851 1.6624863 3.0445418 79.125
-1.3275583 1.6269125 3.0541925 84.333336
-1.049381 1.6492308 3.0587704 89.6875
-0.78177917 1.6593816 3.0698259 69.875
-0.33384299 1.6251265 3.072109 74
-0.10073742 1.6095206 3.0781233 76.333336
0.13164411 1.6656661 3.063025 84.36364
0.45090172 1.6719624 3.0723088 94.375
0.61066103 1.7939663 3.0549295 96
1.4265169 1.7311225 3.0617621 97.333336
1.6839129 1.6662396 3.0816603 90.375
1.969293 1.6565397 3.0950732 92.166664
2.2623992 1.6606973 3.1044269 93.35714
2.5538292 1.6606976 3.1000919 96.125
3.1843522 1.6430918 3.0638857 102
3.4499476 1.6511689 3.0217781 97.571426
3.6131456 1.6449401 3.0121169 89
-2.1502802 1.933092 3.0137539 71
-2.0427926 1.9049672 3.0092373 76.666664
-1.6459017 1.8374361 3.009726 82
-1.3504032 1.8413776 3.0137084 84.428574
-1.0527457 1.8527571 3.0183048 89.666664
-0.76625556 1.8643296 3.0240638 83.36364
-0.58552265 2.0183697 3.0095756 73.5
-0.18920125 1.8438562 3.0271935 81.5
0.17301258 1.8675896 3.0248101 86.800003
0.44972003 1.9070023 3.0257056 98
0.6984973 1.9330864 3.0217483 89
1.0533508 2.0118625 3.060606 84.75
1.3495848 1.9933887 3.0445063 96.764709
1.6498721 1.9801338 3.0415304 96.206894
1.929698 1.9432189 3.0489888 96.535713
2.2496207 1.9247676 3.0612514 93.074074
2.5077066 1.9169497 3.0589314 94.888885
3.1286895 1.9048637 3.024102 109.75
3.3751118 1.912159 3.0077734 150
0.78115463 2.2869501 3.0171387 55.833332
1.003198 2.2237158 3.0189991 93.75
1.3552799 2.1692679 3.0139937 99.428574
1.6166936 2.1642168 3.0091693 109
1.9796429 2.1904888 3.0070632 97.666664
2.2689924 2.2213006 3.0130539 94.25
2.4973321 2.1862998 3.0197062 96.444443
1.7589188 -4.6518149 3.3656595 0
1.9620926 -4.6681499 3.3690076 0
2.2403879 -4.6112146 3.3524766 0
2.5808599 -3.6894021 3.4913518 0
2.7577775 -3.8461394 3.4260736 0
3.4307675 -3.6725502 3.3533754 1.75
0.71696085 -3.3225515 3.5527279 1
1.9708891 -3.3098183 3.5438099 0
2.5356183 -3.4169474 3.5113816 0.25
2.7564313 -3.5649209 3.4888387 0
3.3419898 -3.5025556 3.3955195 2.6666667
0.79352647 -3.1043582 3.5799384 2.75
0.95525885 -3.0337632 3.5991256 0
1.798 -3.1626043 3.5852242 0
1.8152262 -3.2946265 3.5403795 0
2.2430849 -3.2360084 3.5286207 0
2.6326189 -3.2371004 3.5265529 0.5
3.2587812 -3.2652159 3.4529457 1
1.8155336 -2.9918213 3.585393 0
2.1293263 -2.9924736 3.5879352 0
4.2590933 -2.8283403 3.3018031 0
1.9417491 -2.2031159 3.4820156 1
1.7468946 -1.784027 3.4370599 0
1.9659797 -1.7845495 3.4503322 0
-2.150286 -1.3118478 3.4347389 70.090912
-1.915241 -1.4417876 3.3631847 46.599998
-1.7096016 -1.419445 3.4277723 54.57143
-1.3514674 -1.3893123 3.4376576 56.375
-1.0221896 -1.3517282 3.4533997 33.75
-0.77950859 -1.3510408 3.4561341 53.666668
-0.43294525 -1.3361661 3.4458098 55.599998
-0.14177689 -1.3301482 3.3903446 67.625
0.19213513 -1.3021579 3.4699035 63.75
0.45459399 -1.2987367 3.3639009 70.14286
0.66642737 -1.2908897 3.3038077 71
2.1362784 -1.2759714 3.3249309 35
2.6314731 -1.2691144 3.4295187 42
2.7210121 -1.2292633 3.3566046 70
3.7507601 -1.245543 3.469244 75.25
4.0002894 -1.2593908 3.3605824 52
-2.152055 -1.0399294 3.4716084 68.833336
-1.9608148 -1.0583647 3.5708957 66.222221
-1.6606947 -0.97690547 3.5704231 66
-1.2346609 -0.97379977 3.5834594 68.5
-1.0702208 -0.97941339 3.5836608 65.75
-0.75796425 -0.99778068 3.5942307 69
-0.39563513 -0.95989227 3.5877142 71.5
-0.20000595 -1.0242113 3.5948677 70
2.5886207 -1.0132647 3.4461682 64
2.7125425 -1.0660635 3.5722995 81.5
3.5017836 -1.0744244 3.5054018 87
3.7961626 -1.0461252 3.4405744 77.307693
4.0626011 -1.0378757 3.3830533 91.888885
4.3528976 -1.0293525 3.3256295 92.099998
-2.1592128 -0.73959094 3.458575 77.92308
-2.0156393 -0.75982058 3.530792 71.384613
-1.6956339 -0.75940585 3.5506141 74.400002
-1.3054773 -0.73029846 3.5360389 69.727272
-1.0472715 -0.72129989 3.5332992 69.833336
-0.78992432 -0.75983274 3.5438378 69.5
-0.4358626 -0.75644499 3.5415471 70.571426
-0.14921479 -0.79276967 3.5582438 52.125
2.4976358 -0.75018525 3.559267 62
2.7090929 -0.77794814 3.4784212 68
3.5084214 -0.71899194 3.4452331 103.75
3.8076212 -0.75682813 3.395704 82.63636
4.074791 -0.74490261 3.3314724 92.4375
4.2905416 -0.8978821 3.3152037 95
-2.147974 -0.45579615 3.42377 65.272728
-2.0074289 -0.50258571 3.4786782 70.400002
-1.7119344 -0.55388546 3.5213408 78.400002
